ply
format ascii 1.0
element vertex 1275
property float x
property float y
property float z
property uchar red
property uchar green
property uchar blue
end_header
0.048000 0.188000 0.050000 15 25 17
0.108000 0.188000 0.025000 17 25 18
0.220000 0.188000 0.006250 22 43 50
0.348000 0.188000 0.014286 87 80 69
-0.350000 0.186000 0.012500 55 66 68
0.134000 0.186000 0.050000 17 25 17
0.164000 0.186000 0.050000 9 16 12
0.220000 0.186000 0.006250 23 45 51
0.236000 0.186000 0.005000 21 46 53
-0.342000 0.184000 0.010000 54 67 68
-0.358000 0.182000 0.016667 49 61 64
0.126000 0.182000 0.050000 15 24 17
0.176000 0.182000 0.025000 8 15 12
0.356000 0.182000 0.010000 126 112 99
0.360000 0.182000 0.009091 126 112 99
-0.086000 0.180000 0.010000 6 13 11
-0.044000 0.180000 0.100000 91 89 78
0.176000 0.180000 0.025000 6 14 13
-0.304000 0.178000 0.010000 66 72 69
0.260000 0.178000 0.100000 128 114 98
0.272000 0.178000 0.025000 121 110 94
0.346000 0.178000 0.050000 118 104 90
-0.090000 0.176000 0.010000 7 14 11
-0.082000 0.176000 0.008333 12 17 14
0.158000 0.176000 0.025000 7 13 10
0.208000 0.176000 0.007692 21 46 49
0.260000 0.176000 0.100000 129 114 100
0.270000 0.176000 0.025000 122 108 95
0.278000 0.176000 0.016667 121 108 94
0.290000 0.176000 0.010000 96 87 74
0.294000 0.176000 0.009091 126 109 98
0.370000 0.176000 0.006250 117 102 88
-0.324000 0.174000 0.010000 28 42 32
-0.012000 0.174000 0.016667 48 43 44
0.016000 0.174000 0.100000 14 22 17
0.158000 0.174000 0.050000 19 17 18
0.162000 0.174000 0.033333 5 10 8
0.270000 0.174000 0.025000 121 108 95
0.278000 0.174000 0.016667 120 108 92
0.290000 0.174000 0.010000 72 72 57
0.294000 0.174000 0.009091 102 93 78
0.298000 0.174000 0.008333 110 104 86
0.342000 0.174000 0.016667 97 86 77
-0.306000 0.172000 0.010000 68 74 76
0.278000 0.172000 0.016667 120 106 92
0.290000 0.172000 0.010000 93 79 68
0.298000 0.172000 0.008333 112 102 86
0.338000 0.172000 0.016667 124 102 92
0.346000 0.172000 0.012500 121 100 90
-0.046000 0.170000 0.033333 112 103 93
-0.040000 0.170000 0.050000 93 86 76
-0.018000 0.170000 0.025000 71 55 53
0.032000 0.170000 0.016667 18 24 19
0.040000 0.170000 0.012500 31 28 26
0.194000 0.170000 0.005556 55 59 55
0.234000 0.170000 0.006250 20 43 46
0.238000 0.170000 0.004545 21 43 48
0.270000 0.170000 0.025000 122 108 94
0.278000 0.170000 0.016667 120 107 94
0.290000 0.170000 0.010000 116 99 85
0.358000 0.170000 0.007143 126 110 96
-0.338000 0.168000 0.009091 83 86 85
-0.322000 0.168000 0.010000 35 51 53
-0.268000 0.168000 0.005263 10 21 29
-0.264000 0.168000 0.005000 11 25 36
-0.260000 0.168000 0.004762 11 25 35
-0.198000 0.168000 0.100000 11 25 38
-0.104000 0.168000 0.008333 87 80 68
-0.050000 0.168000 0.050000 47 43 39
-0.046000 0.168000 0.033333 109 102 94
-0.008000 0.168000 0.011111 99 80 83
0.046000 0.168000 0.010000 36 36 25
0.082000 0.168000 0.003333 93 74 64
0.092000 0.168000 0.100000 56 51 45
0.250000 0.168000 0.004348 52 66 43
-0.296000 0.166000 0.010000 5 14 13
-0.198000 0.166000 0.100000 13 26 39
0.060000 0.166000 0.005556 68 57 48
0.102000 0.166000 0.011111 85 70 65
0.152000 0.166000 0.005263 91 77 59
0.154000 0.166000 0.005882 83 74 48
0.220000 0.166000 0.004000 12 22 18
0.278000 0.166000 0.016667 122 108 96
0.308000 0.166000 0.003571 130 115 103
0.376000 0.166000 0.009091 95 92 77
-0.334000 0.164000 0.009091 88 91 90
-0.294000 0.164000 0.010000 11 17 13
-0.042000 0.164000 0.016667 68 74 58
-0.032000 0.164000 0.010000 18 29 21
-0.028000 0.164000 0.009091 33 39 31
-0.006000 0.164000 0.016667 105 94 88
0.036000 0.164000 0.011111 87 78 60
0.274000 0.164000 0.033333 123 109 95
0.278000 0.164000 0.016667 125 110 97
0.356000 0.164000 0.016667 118 101 92
0.364000 0.164000 0.014286 113 99 91
-0.328000 0.162000 0.010000 73 75 72
-0.150000 0.162000 0.010000 6 12 11
-0.142000 0.162000 0.008333 5 13 10
-0.138000 0.162000 0.007692 5 11 8
-0.134000 0.162000 0.007143 7 14 12
-0.042000 0.162000 0.016667 23 32 21
0.278000 0.162000 0.020000 125 111 98
0.330000 0.162000 0.010000 122 103 95
0.336000 0.162000 0.033333 124 107 99
-0.328000 0.160000 0.010000 78 79 76
-0.234000 0.160000 0.005263 102 89 85
-0.184000 0.160000 0.010000 22 42 51
-0.042000 0.160000 0.016667 20 28 17
-0.014000 0.160000 0.033333 86 75 67
0.030000 0.160000 0.010000 69 67 51
0.126000 0.160000 0.003704 112 92 77
0.236000 0.160000 0.004348 21 46 51
0.380000 0.160000 0.050000 107 97 84
-0.340000 0.158000 0.012500 87 92 91
-0.184000 0.158000 0.010000 21 41 49
-0.042000 0.158000 0.016667 26 34 23
-0.008000 0.158000 0.100000 110 103 96
0.052000 0.158000 0.007692 105 97 92
-0.356000 0.156000 0.025000 96 96 91
-0.164000 0.156000 0.100000 45 47 44
-0.132000 0.156000 0.007692 72 60 57
-0.130000 0.156000 0.007692 71 64 55
-0.042000 0.156000 0.016667 31 34 29
-0.008000 0.156000 0.100000 105 99 92
0.012000 0.156000 0.007143 84 72 63
0.350000 0.156000 0.025000 122 104 94
-0.170000 0.154000 0.025000 12 19 23
-0.162000 0.154000 0.050000 31 29 32
-0.042000 0.154000 0.016667 30 36 28
0.220000 0.154000 0.004000 12 23 18
-0.148000 0.152000 0.011111 45 50 44
-0.096000 0.152000 0.010000 9 17 13
-0.042000 0.152000 0.016667 28 33 26
0.074000 0.152000 0.003704 100 86 64
-0.252000 0.150000 0.014286 98 89 82
-0.230000 0.150000 0.012500 20 24 30
-0.042000 0.150000 0.016667 27 33 24
0.218000 0.150000 0.004167 18 34 39
0.228000 0.150000 0.033333 30 49 55
0.338000 0.150000 0.033333 131 115 98
-0.218000 0.148000 0.008333 0 4 1
-0.194000 0.148000 0.005556 80 73 75
-0.064000 0.148000 0.005000 118 120 104
-0.012000 0.148000 0.033333 72 69 59
0.044000 0.148000 0.005556 72 60 54
0.166000 0.148000 0.100000 70 64 54
0.204000 0.148000 0.033333 22 44 53
0.218000 0.148000 0.004167 18 34 40
0.228000 0.148000 0.033333 32 49 58
0.340000 0.148000 0.014286 133 118 103
-0.326000 0.146000 0.010000 57 60 55
-0.234000 0.146000 0.005882 84 82 68
-0.102000 0.146000 0.010000 7 15 11
0.058000 0.146000 0.004348 88 81 77
0.166000 0.146000 0.100000 72 68 55
0.204000 0.146000 0.033333 23 45 52
0.218000 0.146000 0.004167 18 35 39
0.228000 0.146000 0.033333 31 50 56
-0.322000 0.144000 0.010000 40 52 55
-0.280000 0.144000 0.005556 6 20 29
-0.232000 0.144000 0.005882 113 101 93
-0.170000 0.144000 0.016667 3 11 7
-0.096000 0.144000 0.010000 8 16 14
0.166000 0.144000 0.100000 76 68 56
0.230000 0.144000 0.025000 20 45 49
0.234000 0.144000 0.004545 23 45 52
-0.322000 0.142000 0.010000 41 55 56
-0.266000 0.142000 0.003846 31 31 37
-0.262000 0.142000 0.003704 10 18 25
-0.206000 0.142000 0.010000 8 14 11
-0.198000 0.142000 0.008333 6 13 10
-0.178000 0.142000 0.025000 6 14 11
-0.170000 0.142000 0.016667 5 11 9
-0.010000 0.142000 0.033333 60 60 49
0.228000 0.142000 0.025000 32 50 59
0.234000 0.142000 0.004545 25 48 53
0.328000 0.142000 0.050000 134 121 105
0.360000 0.142000 0.010000 113 102 89
-0.326000 0.140000 0.010000 45 51 42
-0.322000 0.140000 0.010000 37 52 53
-0.266000 0.140000 0.003846 47 46 50
-0.262000 0.140000 0.003704 12 21 30
-0.228000 0.140000 0.012500 13 20 28
-0.206000 0.140000 0.010000 7 14 11
-0.198000 0.140000 0.008333 6 12 9
-0.010000 0.140000 0.033333 61 60 50
0.022000 0.140000 0.008333 34 36 31
0.062000 0.140000 0.005000 132 122 110
0.128000 0.140000 0.003704 112 95 77
0.136000 0.140000 0.014286 92 81 65
0.202000 0.140000 0.050000 21 45 49
0.206000 0.140000 0.012500 24 47 52
0.282000 0.140000 0.014286 129 115 100
-0.322000 0.138000 0.010000 37 50 53
-0.222000 0.138000 0.020000 9 19 22
-0.202000 0.138000 0.009091 8 14 13
-0.198000 0.138000 0.008333 6 13 12
-0.100000 0.138000 0.011111 10 17 16
-0.088000 0.138000 0.008333 10 19 16
-0.028000 0.138000 0.008333 28 33 25
-0.010000 0.138000 0.033333 63 61 51
0.018000 0.138000 0.009091 39 42 40
0.060000 0.138000 0.005263 93 112 85
0.100000 0.138000 0.006250 121 104 95
0.102000 0.138000 0.005556 107 94 80
0.136000 0.138000 0.014286 91 80 66
0.156000 0.138000 0.012500 91 78 61
0.206000 0.138000 0.012500 23 46 51
0.376000 0.138000 0.010000 136 121 104
-0.324000 0.136000 0.010000 25 35 31
-0.322000 0.136000 0.010000 36 50 50
-0.256000 0.136000 0.003571 41 56 50
-0.236000 0.136000 0.005263 114 107 98
-0.088000 0.136000 0.008333 10 18 17
-0.028000 0.136000 0.008333 27 35 27
0.046000 0.136000 0.004762 54 62 48
0.102000 0.136000 0.005556 110 94 81
0.104000 0.136000 0.012500 102 88 78
0.202000 0.136000 0.050000 18 42 48
0.206000 0.136000 0.004348 23 48 51
0.210000 0.136000 0.011111 22 46 51
-0.324000 0.134000 0.010000 33 42 38
-0.322000 0.134000 0.010000 35 49 50
-0.314000 0.134000 0.011111 81 89 91
-0.270000 0.134000 0.005556 102 93 81
-0.126000 0.134000 0.008333 141 129 119
-0.018000 0.134000 0.008333 98 94 83
0.192000 0.134000 0.010000 5 17 12
0.214000 0.134000 0.010000 24 47 52
0.348000 0.134000 0.010000 131 115 103
-0.324000 0.132000 0.010000 25 34 29
-0.256000 0.132000 0.003571 19 36 36
-0.028000 0.132000 0.008333 30 37 26
0.170000 0.132000 0.014286 80 73 64
0.192000 0.132000 0.010000 5 15 10
0.214000 0.132000 0.010000 23 45 52
0.314000 0.132000 0.004545 131 113 101
-0.324000 0.130000 0.010000 21 31 29
-0.232000 0.130000 0.050000 99 94 76
-0.226000 0.130000 0.011111 5 13 22
-0.004000 0.130000 0.016667 98 86 79
0.000000 0.130000 0.014286 60 59 53
0.184000 0.130000 0.012500 8 15 12
0.192000 0.130000 0.010000 6 16 10
0.218000 0.130000 0.003448 17 35 39
0.310000 0.130000 0.004762 113 105 90
-0.204000 0.128000 0.008333 8 16 13
-0.084000 0.128000 0.008333 138 126 115
-0.006000 0.128000 0.016667 89 83 78
0.012000 0.128000 0.008333 10 18 15
0.058000 0.128000 0.005882 98 102 64
0.230000 0.128000 0.004545 24 47 51
0.310000 0.128000 0.004762 123 109 97
0.314000 0.128000 0.004545 131 115 102
0.334000 0.128000 0.033333 132 117 100
-0.290000 0.126000 0.010000 4 14 13
-0.204000 0.126000 0.008333 7 14 12
0.058000 0.126000 0.005882 154 125 55
0.102000 0.126000 0.007692 120 107 92
0.236000 0.126000 0.004545 27 50 54
0.240000 0.126000 0.004348 26 50 54
0.368000 0.126000 0.005000 114 108 94
0.374000 0.126000 0.010000 128 116 102
-0.290000 0.124000 0.010000 4 13 13
-0.216000 0.124000 0.033333 7 15 12
-0.188000 0.124000 0.020000 11 18 15
-0.064000 0.124000 0.008333 128 118 106
-0.034000 0.124000 0.009091 26 29 22
0.032000 0.124000 0.004348 51 58 43
0.310000 0.124000 0.004762 119 105 92
0.356000 0.124000 0.010000 127 113 100
-0.234000 0.122000 0.100000 11 25 35
-0.124000 0.122000 0.007692 126 114 105
-0.068000 0.122000 0.008333 127 115 107
0.006000 0.122000 0.008333 7 15 11
0.056000 0.122000 0.005882 154 129 62
0.088000 0.122000 0.007143 23 56 71
0.314000 0.122000 0.004545 119 107 92
-0.292000 0.120000 0.010000 7 15 15
-0.054000 0.120000 0.008333 136 123 113
-0.022000 0.120000 0.006667 62 61 55
-0.018000 0.120000 0.006667 73 72 60
0.206000 0.120000 0.033333 24 47 53
0.314000 0.120000 0.004545 102 98 82
0.332000 0.120000 0.050000 132 118 103
0.356000 0.120000 0.010000 108 103 88
-0.312000 0.118000 0.011111 87 93 96
-0.054000 0.118000 0.008333 128 116 105
-0.018000 0.118000 0.006667 57 62 47
0.060000 0.118000 0.005263 157 132 54
0.138000 0.118000 0.011111 98 84 67
0.182000 0.118000 0.014286 4 11 9
0.206000 0.118000 0.033333 25 47 55
0.292000 0.118000 0.003333 116 103 93
0.314000 0.118000 0.004545 101 94 79
-0.312000 0.116000 0.011111 86 94 96
-0.018000 0.116000 0.006667 49 52 36
0.058000 0.116000 0.050000 158 131 56
0.130000 0.116000 0.003846 97 87 70
0.206000 0.116000 0.033333 24 49 54
0.274000 0.116000 0.050000 128 115 101
0.292000 0.116000 0.003333 121 110 96
0.302000 0.116000 0.025000 123 109 95
-0.176000 0.114000 0.008333 28 32 29
-0.018000 0.114000 0.006667 41 43 35
0.030000 0.114000 0.003448 0 6 3
0.162000 0.114000 0.033333 82 69 57
0.206000 0.114000 0.033333 26 47 52
0.292000 0.114000 0.003333 127 114 101
0.294000 0.114000 0.003333 124 111 99
0.302000 0.114000 0.025000 126 111 98
0.358000 0.114000 0.010000 117 106 92
-0.248000 0.112000 0.003333 12 24 35
-0.086000 0.112000 0.008333 116 109 98
-0.058000 0.112000 0.005263 103 101 85
0.066000 0.112000 0.016667 120 102 79
0.078000 0.112000 0.050000 135 127 116
0.114000 0.112000 0.011111 4 6 2
0.118000 0.112000 0.010000 10 15 10
0.206000 0.112000 0.033333 26 49 51
0.282000 0.112000 0.050000 131 115 104
0.294000 0.112000 0.003333 127 114 100
0.306000 0.112000 0.008333 126 113 100
0.330000 0.112000 0.005556 137 120 103
-0.308000 0.110000 0.010000 77 88 89
-0.090000 0.110000 0.008333 36 52 31
-0.040000 0.110000 0.020000 30 36 26
0.072000 0.110000 0.033333 92 83 64
0.114000 0.110000 0.011111 11 12 7
0.118000 0.110000 0.010000 13 16 11
0.162000 0.110000 0.033333 86 74 56
0.208000 0.110000 0.012500 30 52 57
0.282000 0.110000 0.050000 131 117 104
0.294000 0.110000 0.003333 127 115 100
0.298000 0.110000 0.014286 127 115 102
0.368000 0.110000 0.009091 121 110 96
-0.308000 0.108000 0.010000 75 86 89
-0.092000 0.108000 0.008333 28 37 32
0.124000 0.108000 0.008333 26 41 26
0.128000 0.108000 0.007692 75 67 56
0.228000 0.108000 0.003571 41 55 55
0.282000 0.108000 0.050000 126 113 100
0.294000 0.108000 0.003333 116 107 94
0.306000 0.108000 0.008333 113 105 88
-0.308000 0.106000 0.010000 71 81 85
-0.094000 0.106000 0.008333 33 36 30
-0.086000 0.106000 0.007143 49 46 42
-0.046000 0.106000 0.020000 76 66 66
0.126000 0.106000 0.007692 82 83 74
0.130000 0.106000 0.007143 39 44 17
0.314000 0.106000 0.005000 132 119 102
-0.308000 0.104000 0.010000 67 78 80
-0.284000 0.104000 0.010000 13 26 40
-0.132000 0.104000 0.007143 56 68 53
-0.082000 0.104000 0.006250 45 49 43
-0.004000 0.104000 0.003846 12 26 14
0.208000 0.104000 0.004348 31 53 59
0.364000 0.104000 0.010000 127 114 98
-0.078000 0.102000 0.005556 12 24 17
0.012000 0.102000 0.005263 43 48 33
0.066000 0.102000 0.003333 125 102 94
0.204000 0.102000 0.005000 27 51 53
0.216000 0.102000 0.003704 29 50 56
-0.306000 0.100000 0.010000 61 73 76
-0.248000 0.100000 0.050000 11 25 38
-0.114000 0.100000 0.014286 47 48 41
-0.080000 0.100000 0.006250 6 16 11
0.204000 0.100000 0.005000 29 52 57
0.206000 0.100000 0.004545 32 52 58
-0.306000 0.098000 0.010000 59 71 74
-0.248000 0.098000 0.050000 11 26 38
-0.104000 0.098000 0.008333 28 33 30
-0.094000 0.098000 0.008333 6 13 10
-0.086000 0.098000 0.007143 8 14 12
-0.052000 0.098000 0.100000 34 38 30
0.074000 0.098000 0.011111 74 83 74
0.088000 0.098000 0.007692 76 60 52
0.206000 0.098000 0.004545 33 54 57
-0.268000 0.096000 0.007143 12 24 38
-0.114000 0.096000 0.014286 23 27 24
-0.102000 0.096000 0.008333 6 14 10
-0.094000 0.096000 0.008333 10 16 13
-0.044000 0.096000 0.100000 60 62 56
0.066000 0.096000 0.014286 145 135 132
0.070000 0.096000 0.012500 110 112 108
0.072000 0.096000 0.012500 132 126 128
0.082000 0.096000 0.009091 54 37 32
0.158000 0.096000 0.006667 95 77 54
0.316000 0.096000 0.020000 133 120 105
-0.094000 0.094000 0.008333 11 19 14
-0.048000 0.094000 0.100000 32 35 32
0.082000 0.094000 0.009091 57 49 48
0.202000 0.094000 0.005263 38 57 61
0.228000 0.094000 0.004167 129 91 21
0.284000 0.094000 0.007692 126 113 101
0.292000 0.094000 0.003333 128 114 104
-0.116000 0.092000 0.012500 28 32 29
-0.100000 0.092000 0.008333 11 18 16
-0.046000 0.092000 0.100000 34 35 34
0.082000 0.092000 0.009091 91 81 84
0.230000 0.092000 0.005882 130 90 11
0.282000 0.092000 0.008333 123 111 97
-0.276000 0.090000 0.014286 12 26 39
-0.192000 0.090000 0.033333 13 27 42
-0.166000 0.090000 0.033333 12 25 41
-0.162000 0.090000 0.025000 13 23 36
-0.138000 0.090000 0.100000 54 52 52
-0.134000 0.090000 0.050000 48 50 46
-0.100000 0.090000 0.008333 13 19 15
-0.044000 0.090000 0.100000 30 31 30
0.084000 0.090000 0.008333 96 93 94
0.162000 0.090000 0.003704 162 71 31
0.242000 0.090000 0.050000 178 129 48
0.258000 0.090000 0.007143 126 82 13
0.288000 0.090000 0.003333 106 96 83
0.298000 0.090000 0.004762 97 92 76
0.328000 0.090000 0.033333 132 117 107
-0.290000 0.088000 0.010000 89 72 75
-0.106000 0.088000 0.008333 8 13 12
-0.102000 0.088000 0.007692 11 17 15
-0.006000 0.088000 0.050000 36 36 27
0.108000 0.088000 0.004348 45 54 38
0.166000 0.088000 0.003571 171 76 29
0.258000 0.088000 0.007143 128 81 12
0.338000 0.088000 0.016667 131 114 101
0.372000 0.088000 0.050000 139 123 106
0.070000 0.086000 0.003846 146 139 127
0.162000 0.086000 0.003704 196 85 39
0.204000 0.086000 0.008333 135 149 130
0.220000 0.086000 0.006250 21 32 22
0.238000 0.086000 0.005882 155 109 16
0.274000 0.086000 0.004348 114 104 92
0.072000 0.084000 0.003846 129 134 119
0.200000 0.084000 0.010000 48 54 48
0.204000 0.084000 0.009091 132 145 127
0.258000 0.084000 0.007143 125 81 11
0.268000 0.084000 0.005000 120 108 92
-0.344000 0.082000 0.010000 73 82 81
-0.160000 0.082000 0.010000 35 61 29
0.090000 0.082000 0.007692 81 80 74
0.098000 0.082000 0.006667 29 31 22
0.172000 0.082000 0.003846 200 88 35
0.242000 0.082000 0.050000 180 133 58
0.278000 0.082000 0.050000 104 95 82
-0.344000 0.080000 0.010000 72 82 82
-0.014000 0.080000 0.008333 13 22 15
-0.012000 0.080000 0.025000 14 25 17
0.180000 0.080000 0.003846 186 92 43
0.184000 0.080000 0.003846 177 82 36
0.196000 0.080000 0.003846 130 60 26
0.258000 0.080000 0.007143 126 81 12
0.280000 0.080000 0.025000 125 110 99
0.352000 0.080000 0.009091 109 105 88
-0.344000 0.078000 0.010000 70 79 78
-0.326000 0.078000 0.010000 41 51 49
-0.324000 0.078000 0.033333 12 26 23
-0.080000 0.078000 0.012500 41 43 40
0.064000 0.078000 0.003704 121 104 79
0.084000 0.078000 0.009091 87 84 69
0.090000 0.078000 0.007692 56 56 45
0.094000 0.078000 0.007143 43 44 34
0.098000 0.078000 0.006667 17 22 15
0.170000 0.078000 0.003846 204 86 33
0.256000 0.078000 0.006667 137 92 13
0.260000 0.078000 0.007143 106 70 14
0.278000 0.078000 0.008333 114 105 92
0.322000 0.078000 0.012500 94 91 74
-0.344000 0.076000 0.010000 65 75 76
-0.326000 0.076000 0.010000 42 51 50
-0.324000 0.076000 0.033333 6 20 17
-0.206000 0.076000 0.007143 8 15 11
0.090000 0.076000 0.007692 40 31 18
0.098000 0.076000 0.006667 17 23 14
0.168000 0.076000 0.003846 205 90 41
0.252000 0.076000 0.006667 156 104 14
0.254000 0.076000 0.006667 147 97 11
0.260000 0.076000 0.007143 109 78 39
0.364000 0.076000 0.004348 130 118 98
-0.344000 0.074000 0.010000 59 69 69
0.098000 0.074000 0.006667 21 22 17
0.204000 0.074000 0.003571 114 46 20
0.258000 0.074000 0.006667 128 97 55
0.306000 0.074000 0.100000 129 114 104
-0.248000 0.072000 0.020000 51 50 42
-0.244000 0.072000 0.016667 44 44 38
-0.236000 0.072000 0.012500 37 37 34
-0.078000 0.072000 0.008333 47 51 44
0.160000 0.072000 0.004348 211 99 60
0.168000 0.072000 0.004000 203 87 38
0.204000 0.072000 0.003571 115 46 21
0.256000 0.072000 0.007143 140 103 34
-0.286000 0.070000 0.010000 65 57 58
-0.180000 0.070000 0.004545 29 35 28
-0.124000 0.070000 0.008333 47 50 45
0.062000 0.070000 0.012500 91 108 69
0.066000 0.070000 0.011111 72 78 48
0.162000 0.070000 0.004000 207 93 47
0.254000 0.070000 0.008333 145 98 14
0.264000 0.070000 0.006667 108 106 80
0.298000 0.070000 0.005882 130 116 101
0.346000 0.070000 0.033333 133 118 103
-0.182000 0.068000 0.004545 11 21 14
-0.126000 0.068000 0.010000 32 37 32
-0.116000 0.068000 0.008333 32 40 34
-0.102000 0.068000 0.006250 33 41 35
0.076000 0.068000 0.007692 26 27 18
0.084000 0.068000 0.006667 25 24 18
0.088000 0.068000 0.006250 24 24 18
0.092000 0.068000 0.005882 20 22 15
0.216000 0.068000 0.004167 32 42 46
0.264000 0.068000 0.006667 107 103 77
0.346000 0.068000 0.033333 134 118 104
-0.280000 0.066000 0.005000 54 53 46
-0.264000 0.066000 0.004167 61 60 52
-0.240000 0.066000 0.016667 68 64 57
-0.232000 0.066000 0.012500 65 60 55
-0.170000 0.066000 0.011111 111 95 94
-0.104000 0.066000 0.005556 36 40 35
0.168000 0.066000 0.004000 202 84 32
0.176000 0.066000 0.003704 195 82 32
0.220000 0.066000 0.004000 24 32 26
0.372000 0.066000 0.050000 139 124 108
-0.192000 0.064000 0.007143 151 133 131
-0.168000 0.064000 0.011111 121 109 102
-0.138000 0.064000 0.005000 148 130 130
-0.084000 0.064000 0.008333 9 16 13
0.172000 0.064000 0.003846 197 83 31
0.360000 0.064000 0.010000 130 117 102
0.372000 0.064000 0.007692 135 123 110
-0.236000 0.062000 0.014286 76 71 63
-0.192000 0.062000 0.050000 149 138 129
-0.132000 0.062000 0.003846 148 138 131
0.060000 0.062000 0.012500 60 54 43
0.156000 0.062000 0.004545 211 102 59
0.172000 0.062000 0.003846 199 83 31
0.218000 0.062000 0.004000 50 54 55
0.346000 0.062000 0.016667 131 118 101
0.370000 0.062000 0.050000 112 108 90
-0.278000 0.060000 0.005882 70 56 50
-0.194000 0.060000 0.100000 139 131 120
-0.088000 0.060000 0.009091 10 17 13
-0.084000 0.060000 0.008333 8 17 13
0.060000 0.060000 0.050000 94 82 58
0.166000 0.060000 0.003846 201 83 29
0.204000 0.060000 0.004545 109 54 29
0.216000 0.060000 0.004000 33 46 44
0.316000 0.060000 0.005882 136 123 110
0.382000 0.060000 0.010000 45 44 36
-0.238000 0.058000 0.016667 75 70 61
-0.090000 0.058000 0.010000 6 14 11
-0.082000 0.058000 0.050000 8 14 12
0.160000 0.058000 0.003846 211 95 50
0.230000 0.058000 0.003571 50 43 28
0.238000 0.058000 0.003571 146 101 79
0.356000 0.058000 0.016667 113 107 90
-0.358000 0.056000 0.016667 8 15 15
0.168000 0.056000 0.004000 199 85 31
0.172000 0.056000 0.003846 197 83 30
0.206000 0.056000 0.004545 97 68 41
0.228000 0.056000 0.003571 47 43 29
0.252000 0.056000 0.008333 143 95 14
0.256000 0.056000 0.004000 115 77 21
0.260000 0.056000 0.004000 56 43 27
0.380000 0.056000 0.010000 119 106 94
-0.104000 0.054000 0.011111 55 57 52
-0.042000 0.054000 0.010000 24 31 22
0.162000 0.054000 0.004000 203 84 34
0.190000 0.054000 0.003571 159 66 25
0.200000 0.054000 0.004762 119 57 26
0.236000 0.054000 0.100000 142 98 20
0.240000 0.054000 0.100000 155 111 36
0.252000 0.054000 0.008333 127 81 14
0.348000 0.054000 0.025000 133 118 106
-0.304000 0.052000 0.010000 15 36 30
-0.216000 0.052000 0.010000 69 68 57
-0.082000 0.052000 0.100000 37 40 41
0.076000 0.052000 0.009091 57 51 29
0.152000 0.052000 0.004762 210 100 55
0.168000 0.052000 0.004000 199 84 34
0.172000 0.052000 0.003846 196 82 32
0.222000 0.052000 0.005882 54 33 20
0.226000 0.052000 0.005556 65 30 14
0.230000 0.052000 0.100000 76 33 12
0.234000 0.052000 0.100000 83 35 9
0.242000 0.052000 0.004545 124 76 63
0.250000 0.052000 0.004167 86 33 11
0.374000 0.052000 0.005556 138 121 105
-0.304000 0.050000 0.010000 16 35 28
-0.302000 0.050000 0.010000 47 54 57
-0.216000 0.050000 0.010000 71 68 60
-0.138000 0.050000 0.003571 124 114 101
-0.042000 0.050000 0.010000 24 29 22
0.030000 0.050000 0.003448 68 51 38
0.080000 0.050000 0.007692 69 48 38
0.162000 0.050000 0.004000 203 85 31
0.182000 0.050000 0.003846 180 77 35
0.218000 0.050000 0.006250 49 20 14
0.222000 0.050000 0.005882 68 16 14
0.242000 0.050000 0.004545 111 52 49
0.296000 0.050000 0.003448 114 105 92
0.300000 0.050000 0.003333 131 117 104
-0.340000 0.048000 0.009091 34 49 51
-0.302000 0.048000 0.010000 45 52 55
-0.226000 0.048000 0.003571 63 65 60
-0.218000 0.048000 0.003333 62 64 60
-0.044000 0.048000 0.010000 27 31 23
0.048000 0.048000 0.004000 143 113 93
0.080000 0.048000 0.007692 80 58 45
0.212000 0.048000 0.006667 132 121 106
0.228000 0.048000 0.005263 82 17 12
0.244000 0.048000 0.004348 92 26 22
0.248000 0.048000 0.004167 87 18 13
0.348000 0.048000 0.100000 135 119 105
-0.340000 0.046000 0.009091 31 48 49
-0.304000 0.046000 0.010000 15 34 26
-0.302000 0.046000 0.010000 45 52 55
-0.160000 0.046000 0.011111 104 103 94
-0.120000 0.046000 0.050000 65 66 59
-0.060000 0.046000 0.005882 17 32 20
-0.040000 0.046000 0.050000 28 32 24
0.074000 0.046000 0.009091 69 55 44
0.166000 0.046000 0.003846 200 84 31
0.190000 0.046000 0.003571 152 59 20
0.200000 0.046000 0.004762 106 50 28
0.230000 0.046000 0.005000 79 14 8
0.288000 0.046000 0.016667 123 113 100
0.360000 0.046000 0.009091 120 101 93
-0.140000 0.044000 0.010000 116 109 97
-0.112000 0.044000 0.016667 65 69 60
-0.040000 0.044000 0.050000 24 31 22
0.074000 0.044000 0.009091 61 49 39
0.076000 0.044000 0.009091 57 52 29
0.230000 0.044000 0.005000 80 14 11
0.234000 0.044000 0.004762 82 14 9
0.304000 0.044000 0.003333 127 116 102
-0.142000 0.042000 0.010000 109 100 89
-0.044000 0.042000 0.100000 25 32 21
-0.040000 0.042000 0.050000 25 30 24
0.160000 0.042000 0.003846 203 85 34
0.190000 0.042000 0.003571 145 57 20
0.198000 0.042000 0.004762 111 54 30
0.230000 0.042000 0.005000 79 13 9
0.234000 0.042000 0.004762 81 14 9
0.238000 0.042000 0.004545 86 19 12
0.304000 0.042000 0.003333 129 117 103
-0.272000 0.040000 0.004762 25 29 20
-0.226000 0.040000 0.005263 64 64 53
-0.164000 0.040000 0.020000 123 111 103
-0.044000 0.040000 0.100000 26 30 22
-0.040000 0.040000 0.050000 26 33 24
0.058000 0.040000 0.050000 69 60 46
0.074000 0.040000 0.009091 63 51 42
0.158000 0.040000 0.003846 202 86 32
0.232000 0.040000 0.004762 82 17 12
0.236000 0.040000 0.004545 85 17 13
0.260000 0.040000 0.009091 72 62 51
-0.332000 0.038000 0.009091 45 58 60
-0.280000 0.038000 0.006250 27 31 30
-0.156000 0.038000 0.012500 117 108 98
-0.150000 0.038000 0.012500 116 104 94
-0.146000 0.038000 0.011111 110 100 93
-0.094000 0.038000 0.003571 20 38 19
-0.084000 0.038000 0.012500 44 46 39
-0.044000 0.038000 0.100000 28 33 23
-0.040000 0.038000 0.050000 28 32 25
0.150000 0.038000 0.004167 208 94 49
0.158000 0.038000 0.003846 202 84 32
0.190000 0.038000 0.003571 139 55 18
0.232000 0.038000 0.004762 82 17 12
0.362000 0.038000 0.006667 133 117 101
-0.304000 0.036000 0.010000 14 32 26
-0.150000 0.036000 0.012500 114 104 94
-0.146000 0.036000 0.011111 113 104 93
-0.096000 0.036000 0.003846 11 21 13
-0.070000 0.036000 0.033333 126 116 102
-0.008000 0.036000 0.003704 28 35 23
0.232000 0.036000 0.004762 82 15 13
0.352000 0.036000 0.007692 126 114 99
-0.304000 0.034000 0.010000 9 28 20
-0.254000 0.034000 0.100000 79 74 67
-0.166000 0.034000 0.025000 127 114 102
-0.096000 0.034000 0.003846 6 17 10
-0.036000 0.034000 0.100000 35 39 31
-0.034000 0.034000 0.100000 34 35 29
0.056000 0.034000 0.025000 41 45 35
0.072000 0.034000 0.007692 31 24 17
0.232000 0.034000 0.004762 80 15 12
-0.298000 0.032000 0.010000 31 38 36
-0.226000 0.032000 0.033333 74 69 62
-0.156000 0.032000 0.011111 115 107 95
-0.090000 0.032000 0.008333 100 111 89
-0.034000 0.032000 0.100000 35 38 32
-0.006000 0.032000 0.003704 39 39 26
0.060000 0.032000 0.020000 35 34 27
0.146000 0.032000 0.005000 208 98 53
0.232000 0.032000 0.004762 82 14 11
0.362000 0.032000 0.005882 134 121 106
-0.310000 0.030000 0.100000 176 164 160
-0.276000 0.030000 0.016667 110 106 98
-0.156000 0.030000 0.011111 117 109 100
-0.142000 0.030000 0.011111 121 109 100
-0.076000 0.030000 0.003333 69 73 56
-0.054000 0.030000 0.011111 41 49 33
-0.044000 0.030000 0.100000 26 32 25
-0.040000 0.030000 0.050000 25 33 24
-0.006000 0.030000 0.003704 39 38 26
0.144000 0.030000 0.005263 208 101 57
0.236000 0.030000 0.004348 83 15 13
0.240000 0.030000 0.004167 94 30 25
0.264000 0.030000 0.006250 93 65 43
-0.272000 0.028000 0.012500 72 66 57
-0.252000 0.028000 0.020000 80 77 69
-0.044000 0.028000 0.100000 27 33 24
-0.040000 0.028000 0.050000 28 32 23
-0.006000 0.028000 0.003704 40 41 28
0.142000 0.028000 0.003333 206 96 50
0.144000 0.028000 0.005263 208 99 56
0.236000 0.028000 0.004348 82 14 11
-0.316000 0.026000 0.005882 123 126 124
-0.272000 0.026000 0.012500 68 64 58
-0.112000 0.026000 0.007692 21 36 27
-0.044000 0.026000 0.100000 26 32 27
-0.040000 0.026000 0.050000 28 32 23
0.062000 0.026000 0.012500 70 61 52
0.236000 0.026000 0.004348 85 17 12
0.304000 0.026000 0.003333 131 116 103
0.308000 0.026000 0.007143 129 114 97
0.344000 0.026000 0.010000 129 115 103
0.350000 0.026000 0.010000 112 103 85
0.354000 0.026000 0.009091 124 114 96
-0.316000 0.024000 0.005882 90 104 100
-0.300000 0.024000 0.010000 20 30 25
-0.296000 0.024000 0.020000 139 136 129
-0.286000 0.024000 0.020000 115 108 98
-0.044000 0.024000 0.100000 27 32 25
0.080000 0.024000 0.006667 170 144 125
0.140000 0.024000 0.003333 202 91 45
0.200000 0.024000 0.003571 45 57 49
0.236000 0.024000 0.004348 82 17 11
0.308000 0.024000 0.007143 123 112 98
-0.316000 0.022000 0.005882 43 65 67
-0.312000 0.022000 0.005556 37 59 61
-0.294000 0.022000 0.025000 112 105 97
-0.166000 0.022000 0.050000 136 122 111
-0.162000 0.022000 0.016667 129 119 105
-0.136000 0.022000 0.100000 199 200 189
-0.060000 0.022000 0.011111 18 29 17
-0.044000 0.022000 0.100000 28 32 23
-0.040000 0.022000 0.050000 27 32 24
0.052000 0.022000 0.100000 179 161 132
0.064000 0.022000 0.016667 181 163 133
0.140000 0.022000 0.003333 204 93 46
0.328000 0.022000 0.050000 136 123 108
-0.292000 0.020000 0.025000 94 92 80
-0.288000 0.020000 0.020000 115 106 100
-0.252000 0.020000 0.020000 70 70 62
-0.136000 0.020000 0.100000 190 188 177
-0.120000 0.020000 0.020000 7 15 10
-0.044000 0.020000 0.100000 30 33 25
-0.006000 0.020000 0.003846 64 57 40
0.322000 0.020000 0.050000 135 121 106
0.328000 0.020000 0.050000 135 122 109
-0.292000 0.018000 0.025000 98 94 85
-0.288000 0.018000 0.020000 115 106 97
-0.276000 0.018000 0.003704 100 94 86
-0.252000 0.018000 0.020000 75 72 64
-0.230000 0.018000 0.003571 73 68 61
-0.132000 0.018000 0.007143 158 141 131
-0.100000 0.018000 0.004545 8 16 13
-0.044000 0.018000 0.100000 29 33 25
-0.038000 0.018000 0.100000 31 37 27
-0.002000 0.018000 0.100000 84 77 64
0.042000 0.018000 0.007692 86 82 59
0.044000 0.018000 0.003333 89 98 69
0.208000 0.018000 0.003571 95 96 96
0.286000 0.018000 0.004348 112 105 90
-0.300000 0.016000 0.010000 18 28 26
-0.284000 0.016000 0.020000 106 99 91
-0.224000 0.016000 0.003333 58 61 52
-0.112000 0.016000 0.014286 13 24 17
-0.044000 0.016000 0.100000 31 35 28
0.196000 0.016000 0.007692 143 115 99
0.206000 0.016000 0.003846 170 145 140
0.276000 0.016000 0.006250 132 129 108
0.354000 0.016000 0.050000 130 115 103
-0.300000 0.014000 0.010000 21 30 24
-0.284000 0.014000 0.020000 105 97 88
-0.252000 0.014000 0.033333 87 79 77
-0.246000 0.014000 0.012500 91 82 78
-0.224000 0.014000 0.003333 29 40 30
-0.154000 0.014000 0.010000 111 106 98
-0.122000 0.014000 0.025000 13 20 18
-0.062000 0.014000 0.025000 102 88 83
-0.044000 0.014000 0.100000 33 35 27
-0.038000 0.014000 0.100000 31 40 28
0.262000 0.014000 0.006667 137 88 52
-0.326000 0.012000 0.100000 47 56 58
-0.300000 0.012000 0.010000 23 30 28
-0.284000 0.012000 0.020000 99 93 83
-0.230000 0.012000 0.003571 13 23 17
-0.044000 0.012000 0.100000 34 37 33
0.260000 0.012000 0.007143 133 72 34
-0.326000 0.010000 0.050000 42 52 52
-0.300000 0.010000 0.010000 21 30 26
-0.044000 0.010000 0.100000 52 48 53
0.038000 0.010000 0.100000 183 162 133
0.050000 0.010000 0.025000 107 100 79
0.142000 0.010000 0.004000 240 127 105
0.146000 0.010000 0.003846 213 94 50
0.158000 0.010000 0.004167 194 81 31
0.166000 0.010000 0.003846 188 81 33
0.198000 0.010000 0.003333 136 126 98
0.244000 0.010000 0.014286 173 84 40
0.264000 0.010000 0.008333 122 108 76
0.358000 0.010000 0.010000 132 119 102
-0.326000 0.008000 0.050000 36 49 48
-0.300000 0.008000 0.010000 23 34 28
-0.288000 0.008000 0.025000 113 103 98
-0.284000 0.008000 0.020000 101 93 86
-0.160000 0.008000 0.100000 88 80 84
0.008000 0.008000 0.010000 6 15 13
0.294000 0.008000 0.004167 118 103 79
0.306000 0.008000 0.005556 119 111 92
-0.326000 0.006000 0.050000 40 51 51
-0.160000 0.006000 0.100000 81 78 77
0.098000 0.006000 0.003448 146 65 32
0.100000 0.006000 0.003448 157 70 31
0.104000 0.006000 0.003448 169 75 32
0.108000 0.006000 0.003333 176 79 33
0.196000 0.006000 0.003704 101 92 83
0.204000 0.006000 0.003448 96 85 91
0.266000 0.006000 0.006667 87 37 29
0.344000 0.006000 0.016667 138 123 108
-0.040000 0.004000 0.004762 183 172 154
0.012000 0.004000 0.010000 46 39 43
0.016000 0.004000 0.009091 39 39 31
0.126000 0.004000 0.003333 198 89 41
0.128000 0.004000 0.003333 200 90 44
0.268000 0.004000 0.007692 55 37 24
0.284000 0.004000 0.003448 182 82 40
0.242000 0.002000 0.025000 183 81 35
0.348000 0.002000 0.003704 135 122 106
0.352000 0.002000 0.012500 136 122 105
0.370000 0.002000 0.010000 126 113 100
0.378000 0.002000 0.008333 131 118 103
-0.114000 -0.000000 0.050000 21 28 24
-0.062000 -0.000000 0.004545 176 161 147
0.280000 -0.000000 0.003333 111 96 76
-0.256000 -0.002000 0.007692 76 75 71
-0.224000 -0.002000 0.010000 34 44 34
-0.084000 -0.002000 0.005882 20 29 26
0.238000 -0.002000 0.025000 158 78 77
0.270000 -0.002000 0.004167 50 14 11
0.362000 -0.002000 0.010000 134 120 100
0.368000 -0.002000 0.010000 116 103 92
0.376000 -0.002000 0.008333 94 91 74
-0.226000 -0.004000 0.010000 12 24 15
0.080000 -0.004000 0.003333 149 110 95
0.248000 -0.004000 0.003704 166 82 33
0.366000 -0.004000 0.010000 134 117 101
-0.140000 -0.006000 0.100000 10 22 15
-0.136000 -0.006000 0.100000 15 16 16
0.076000 -0.006000 0.003333 63 72 47
0.184000 -0.006000 0.008333 120 55 24
-0.132000 -0.008000 0.100000 6 15 10
-0.116000 -0.008000 0.009091 11 19 16
0.008000 -0.008000 0.005000 187 169 153
0.142000 -0.008000 0.004167 205 89 40
0.250000 -0.008000 0.010000 155 103 66
-0.292000 -0.010000 0.004348 99 94 85
-0.214000 -0.010000 0.003448 96 87 92
-0.178000 -0.010000 0.006667 146 109 95
-0.154000 -0.010000 0.005882 114 103 103
-0.132000 -0.010000 0.100000 23 31 21
-0.072000 -0.010000 0.004545 190 174 163
0.114000 -0.010000 0.033333 193 86 37
0.286000 -0.010000 0.005000 113 107 90
0.292000 -0.010000 0.004545 107 100 88
-0.292000 -0.012000 0.004348 96 92 82
-0.260000 -0.012000 0.010000 17 28 29
-0.226000 -0.012000 0.003333 16 34 19
-0.220000 -0.012000 0.050000 90 90 88
0.008000 -0.012000 0.005000 190 173 158
0.182000 -0.012000 0.003704 135 55 21
0.264000 -0.012000 0.007692 80 93 71
0.270000 -0.012000 0.006667 73 83 62
-0.258000 -0.014000 0.010000 37 42 40
-0.226000 -0.014000 0.003333 25 30 25
-0.148000 -0.014000 0.014286 33 36 22
0.114000 -0.014000 0.025000 193 87 38
0.184000 -0.014000 0.003571 126 54 22
0.212000 -0.014000 0.005263 16 45 19
0.238000 -0.014000 0.025000 163 78 38
0.358000 -0.014000 0.100000 160 94 66
0.370000 -0.014000 0.010000 121 109 93
0.372000 -0.014000 0.010000 119 108 96
0.374000 -0.014000 0.010000 117 103 91
-0.262000 -0.016000 0.010000 50 54 52
-0.234000 -0.016000 0.010000 107 103 100
0.180000 -0.016000 0.003704 143 60 23
0.212000 -0.016000 0.005263 11 36 14
0.220000 -0.016000 0.004762 70 41 34
0.182000 -0.018000 0.003571 137 56 21
0.224000 -0.018000 0.004348 74 38 33
0.264000 -0.018000 0.007143 58 27 23
0.294000 -0.018000 0.010000 123 110 99
0.322000 -0.018000 0.006250 133 120 106
-0.172000 -0.020000 0.100000 96 89 83
-0.168000 -0.020000 0.050000 93 86 80
-0.164000 -0.020000 0.033333 95 86 82
-0.160000 -0.020000 0.025000 94 87 84
-0.152000 -0.020000 0.016667 78 72 70
-0.144000 -0.020000 0.012500 23 31 27
-0.044000 -0.020000 0.003448 245 240 227
-0.040000 -0.020000 0.003333 247 236 217
0.034000 -0.020000 0.005263 120 109 93
0.114000 -0.020000 0.020000 200 92 40
0.220000 -0.020000 0.004762 24 30 19
-0.168000 -0.022000 0.033333 40 56 38
-0.068000 -0.022000 0.004348 227 211 197
-0.048000 -0.022000 0.003571 243 239 226
0.032000 -0.022000 0.005263 173 153 139
0.052000 -0.022000 0.004167 40 45 24
0.222000 -0.022000 0.004545 12 25 14
0.246000 -0.022000 0.020000 126 62 26
0.334000 -0.022000 0.010000 117 106 92
-0.282000 -0.024000 0.010000 6 18 12
0.016000 -0.024000 0.005000 249 213 195
0.030000 -0.024000 0.005263 186 168 151
0.070000 -0.024000 0.003448 155 70 31
0.074000 -0.024000 0.003333 163 72 30
0.114000 -0.024000 0.016667 201 89 39
0.178000 -0.024000 0.003571 150 63 24
0.232000 -0.024000 0.004000 50 62 40
0.236000 -0.024000 0.003846 38 61 31
0.336000 -0.024000 0.010000 104 98 84
-0.270000 -0.026000 0.005000 8 15 13
-0.158000 -0.026000 0.025000 6 13 10
0.018000 -0.026000 0.005000 245 214 195
0.022000 -0.026000 0.005556 233 203 186
0.026000 -0.026000 0.005263 197 176 161
0.030000 -0.026000 0.005000 187 170 153
0.066000 -0.026000 0.003448 149 68 29
0.178000 -0.026000 0.003571 153 65 26
0.228000 -0.026000 0.004167 25 40 21
0.364000 -0.026000 0.016667 144 123 95
0.016000 -0.028000 0.004762 234 215 197
0.028000 -0.028000 0.005000 218 191 176
0.064000 -0.028000 0.003448 150 67 29
0.174000 -0.028000 0.003704 165 72 26
0.228000 -0.028000 0.004167 11 37 15
0.374000 -0.028000 0.050000 134 90 73
0.018000 -0.030000 0.004762 235 213 194
0.026000 -0.030000 0.005000 235 209 190
0.062000 -0.030000 0.003448 148 68 29
0.132000 -0.030000 0.004167 206 93 43
0.136000 -0.030000 0.004000 204 91 41
0.172000 -0.030000 0.003704 168 73 29
0.228000 -0.030000 0.004167 9 33 13
0.286000 -0.030000 0.003846 159 78 37
0.370000 -0.030000 0.100000 128 114 99
0.024000 -0.032000 0.005000 236 213 194
0.060000 -0.032000 0.003448 152 68 32
0.286000 -0.032000 0.003571 161 79 31
0.290000 -0.032000 0.003448 160 78 33
0.370000 -0.032000 0.100000 111 101 84
0.060000 -0.034000 0.003448 156 74 36
0.064000 -0.034000 0.003333 166 77 34
0.132000 -0.034000 0.004167 206 94 45
0.170000 -0.034000 0.003704 173 74 31
0.216000 -0.034000 0.004762 10 35 15
0.228000 -0.034000 0.004167 12 34 18
0.244000 -0.034000 0.003571 125 122 105
0.260000 -0.034000 0.005263 7 18 7
0.288000 -0.034000 0.003448 163 80 35
0.298000 -0.034000 0.003333 162 81 32
0.370000 -0.034000 0.100000 108 95 85
0.084000 -0.036000 0.003333 184 83 37
0.088000 -0.036000 0.003333 191 86 37
0.170000 -0.036000 0.003704 171 72 27
0.216000 -0.036000 0.004762 10 36 15
0.228000 -0.036000 0.004167 26 40 20
0.240000 -0.036000 0.003704 71 80 61
0.292000 -0.036000 0.003448 158 80 36
0.302000 -0.036000 0.003333 162 80 32
-0.264000 -0.038000 0.010000 65 59 59
-0.176000 -0.038000 0.020000 71 61 63
-0.168000 -0.038000 0.014286 71 61 64
-0.012000 -0.038000 0.004762 246 225 209
0.084000 -0.038000 0.003333 185 84 37
0.096000 -0.038000 0.003333 197 90 41
0.244000 -0.038000 0.003448 19 41 23
0.308000 -0.038000 0.003333 161 81 33
0.310000 -0.038000 0.003333 160 80 32
0.342000 -0.038000 0.008333 122 110 95
0.348000 -0.038000 0.010000 121 109 93
-0.136000 -0.040000 0.004762 80 77 72
-0.116000 -0.040000 0.003846 9 21 12
-0.112000 -0.040000 0.003704 105 86 79
0.084000 -0.040000 0.003333 189 86 38
0.090000 -0.040000 0.003333 190 85 39
0.126000 -0.040000 0.004545 203 91 41
0.134000 -0.040000 0.004167 201 88 40
0.142000 -0.040000 0.003846 197 87 37
0.164000 -0.040000 0.003846 180 80 31
0.208000 -0.040000 0.005000 7 27 12
0.240000 -0.040000 0.003571 57 55 39
0.346000 -0.040000 0.010000 119 108 90
0.378000 -0.040000 0.012500 100 94 79
-0.126000 -0.042000 0.003333 88 85 75
-0.124000 -0.042000 0.003333 92 86 82
-0.120000 -0.042000 0.003333 5 16 9
-0.096000 -0.042000 0.009091 221 208 193
0.084000 -0.042000 0.003333 191 86 39
0.240000 -0.042000 0.003571 109 95 64
0.292000 -0.042000 0.007692 128 114 97
0.362000 -0.042000 0.020000 131 118 99
-0.204000 -0.044000 0.011111 108 107 93
-0.154000 -0.044000 0.012500 10 18 14
-0.096000 -0.044000 0.009091 218 197 180
-0.030000 -0.044000 0.005882 249 237 218
-0.014000 -0.044000 0.004762 250 230 210
-0.010000 -0.044000 0.004545 250 230 210
0.052000 -0.044000 0.003333 56 57 56
0.092000 -0.044000 0.003333 196 90 40
0.170000 -0.044000 0.003704 173 73 27
0.242000 -0.044000 0.025000 99 56 44
0.268000 -0.044000 0.007692 62 16 16
0.272000 -0.044000 0.007143 10 25 9
0.374000 -0.044000 0.012500 131 116 105
-0.240000 -0.046000 0.014286 87 86 78
-0.232000 -0.046000 0.012500 95 90 83
-0.180000 -0.046000 0.016667 78 80 69
-0.026000 -0.046000 0.005556 252 236 216
-0.014000 -0.046000 0.004762 252 233 213
-0.010000 -0.046000 0.004545 252 232 212
0.050000 -0.046000 0.003333 56 60 57
0.086000 -0.046000 0.003333 190 88 39
0.132000 -0.046000 0.004348 202 89 40
0.140000 -0.046000 0.004000 198 88 39
0.144000 -0.046000 0.003846 195 87 39
0.242000 -0.046000 0.025000 132 87 89
0.256000 -0.046000 0.010000 101 56 55
0.268000 -0.046000 0.007692 50 7 7
0.292000 -0.046000 0.010000 123 111 97
-0.262000 -0.048000 0.009091 100 92 86
-0.226000 -0.048000 0.010000 100 94 84
-0.182000 -0.048000 0.020000 86 83 73
-0.178000 -0.048000 0.016667 83 79 70
-0.154000 -0.048000 0.008333 15 25 19
-0.098000 -0.048000 0.009091 226 212 200
0.044000 -0.048000 0.005556 118 106 91
0.050000 -0.048000 0.003333 67 65 70
0.088000 -0.048000 0.003448 186 87 40
0.180000 -0.048000 0.003571 155 66 25
0.272000 -0.048000 0.007143 10 27 11
-0.180000 -0.050000 0.011111 103 94 86
-0.144000 -0.050000 0.005556 86 85 77
0.044000 -0.050000 0.005556 113 102 86
0.088000 -0.050000 0.003448 188 83 39
0.100000 -0.050000 0.050000 203 92 42
0.106000 -0.050000 0.025000 202 92 43
0.280000 -0.050000 0.006250 6 21 11
0.376000 -0.050000 0.050000 117 103 92
-0.290000 -0.052000 0.012500 11 19 14
-0.288000 -0.052000 0.006667 8 15 14
-0.286000 -0.052000 0.011111 8 14 13
-0.282000 -0.052000 0.010000 7 15 12
-0.158000 -0.052000 0.008333 19 24 21
0.110000 -0.052000 0.012500 204 92 44
0.192000 -0.052000 0.003704 119 49 20
0.242000 -0.052000 0.025000 94 62 36
0.246000 -0.052000 0.020000 81 53 27
0.250000 -0.052000 0.003333 80 57 24
0.266000 -0.052000 0.010000 15 21 12
0.318000 -0.052000 0.005000 97 92 75
-0.160000 -0.054000 0.008333 7 18 13
-0.152000 -0.054000 0.007143 10 12 12
0.000000 -0.054000 0.033333 241 216 195
0.004000 -0.054000 0.025000 236 209 190
0.008000 -0.054000 0.004762 200 174 161
0.152000 -0.054000 0.003846 188 83 34
0.192000 -0.054000 0.003571 122 49 20
0.248000 -0.054000 0.003333 92 60 27
0.250000 -0.054000 0.016667 97 65 31
0.266000 -0.054000 0.010000 7 20 13
0.350000 -0.054000 0.003571 153 78 36
0.358000 -0.054000 0.003333 159 79 26
0.360000 -0.054000 0.003333 159 81 30
0.368000 -0.054000 0.003448 154 82 40
-0.338000 -0.056000 0.009091 11 24 23
0.072000 -0.056000 0.003448 159 148 127
0.142000 -0.056000 0.004167 194 85 37
0.152000 -0.056000 0.003846 189 84 35
0.196000 -0.056000 0.003571 104 44 18
0.266000 -0.056000 0.010000 7 21 11
0.352000 -0.056000 0.003571 142 88 60
0.360000 -0.056000 0.003333 159 81 32
0.374000 -0.056000 0.003333 154 79 39
-0.300000 -0.058000 0.010000 8 17 13
-0.250000 -0.058000 0.010000 84 69 65
-0.156000 -0.058000 0.007692 44 46 40
-0.090000 -0.058000 0.004545 229 209 195
-0.014000 -0.058000 0.006667 244 225 207
0.002000 -0.058000 0.033333 220 200 182
0.006000 -0.058000 0.025000 222 202 183
0.034000 -0.058000 0.009091 192 177 160
0.136000 -0.058000 0.004762 195 88 38
0.238000 -0.058000 0.025000 62 27 3
0.270000 -0.058000 0.008333 7 31 11
0.328000 -0.058000 0.005556 101 95 77
0.342000 -0.058000 0.007143 126 115 96
-0.164000 -0.060000 0.008333 22 28 20
-0.156000 -0.060000 0.007143 49 51 47
-0.152000 -0.060000 0.008333 18 25 24
0.006000 -0.060000 0.025000 222 201 184
0.034000 -0.060000 0.009091 166 155 138
0.156000 -0.060000 0.003846 184 81 32
0.220000 -0.060000 0.004762 14 27 6
0.244000 -0.060000 0.016667 64 39 21
0.272000 -0.060000 0.007692 7 30 12
0.350000 -0.060000 0.006250 129 114 96
0.374000 -0.060000 0.003333 160 82 27
-0.300000 -0.062000 0.010000 6 17 12
-0.276000 -0.062000 0.010000 88 80 68
-0.176000 -0.062000 0.016667 85 78 61
-0.172000 -0.062000 0.014286 85 77 61
-0.156000 -0.062000 0.008333 40 43 37
-0.152000 -0.062000 0.008333 19 22 24
-0.144000 -0.062000 0.005882 79 73 60
0.034000 -0.062000 0.009091 141 130 117
0.102000 -0.062000 0.008333 175 157 133
0.156000 -0.062000 0.003846 183 80 32
0.244000 -0.062000 0.016667 44 30 20
0.370000 -0.062000 0.003448 140 99 70
0.374000 -0.062000 0.003333 148 82 47
-0.276000 -0.064000 0.010000 87 79 67
-0.176000 -0.064000 0.016667 70 67 51
-0.172000 -0.064000 0.014286 88 79 64
-0.152000 -0.064000 0.008333 13 20 18
0.004000 -0.064000 0.004762 224 204 189
0.034000 -0.064000 0.009091 117 106 94
0.036000 -0.064000 0.009091 167 163 144
0.066000 -0.064000 0.100000 151 136 117
0.244000 -0.064000 0.016667 29 25 19
0.312000 -0.064000 0.006667 56 54 40
-0.278000 -0.066000 0.010000 92 83 73
-0.216000 -0.066000 0.007143 95 88 76
-0.172000 -0.066000 0.014286 93 81 68
-0.154000 -0.066000 0.008333 15 23 20
0.034000 -0.066000 0.009091 101 91 78
0.038000 -0.066000 0.008333 203 183 172
0.076000 -0.066000 0.005556 81 86 63
0.102000 -0.066000 0.050000 191 176 159
0.170000 -0.066000 0.003846 169 72 29
0.184000 -0.066000 0.003704 148 65 25
0.194000 -0.066000 0.003704 125 49 19
0.198000 -0.066000 0.004000 105 43 17
0.202000 -0.066000 0.004000 84 36 15
0.244000 -0.066000 0.016667 29 21 14
0.252000 -0.066000 0.050000 101 79 58
0.308000 -0.066000 0.020000 62 59 45
-0.288000 -0.068000 0.004167 92 84 74
-0.210000 -0.068000 0.003571 93 84 73
-0.208000 -0.068000 0.011111 90 81 70
-0.174000 -0.068000 0.014286 98 87 70
-0.172000 -0.068000 0.014286 100 88 73
-0.152000 -0.068000 0.008333 13 25 14
0.090000 -0.068000 0.004000 106 87 83
0.104000 -0.068000 0.008333 150 138 115
0.130000 -0.068000 0.006250 176 132 96
0.168000 -0.068000 0.004348 174 76 33
0.240000 -0.068000 0.003571 78 57 31
0.274000 -0.068000 0.007143 6 27 10
0.282000 -0.068000 0.006250 5 19 8
0.370000 -0.068000 0.016667 131 119 103
-0.288000 -0.070000 0.004167 87 79 67
-0.258000 -0.070000 0.050000 91 77 68
-0.226000 -0.070000 0.006250 90 80 67
-0.172000 -0.070000 0.014286 89 82 65
0.038000 -0.070000 0.025000 215 195 182
0.076000 -0.070000 0.005556 41 58 38
0.192000 -0.070000 0.003571 133 55 22
0.200000 -0.070000 0.004000 102 44 19
0.266000 -0.070000 0.010000 9 22 13
0.372000 -0.070000 0.016667 121 109 94
-0.148000 -0.072000 0.005882 63 68 49
0.016000 -0.072000 0.014286 197 180 165
0.020000 -0.072000 0.012500 193 178 164
0.064000 -0.072000 0.004000 138 123 106
0.086000 -0.072000 0.004167 7 24 3
0.158000 -0.072000 0.005882 170 84 46
0.196000 -0.072000 0.003704 119 48 19
0.258000 -0.072000 0.012500 34 23 17
0.262000 -0.072000 0.011111 11 22 15
0.266000 -0.072000 0.010000 8 21 12
0.312000 -0.072000 0.025000 67 61 50
0.372000 -0.072000 0.016667 126 111 102
-0.148000 -0.074000 0.005882 125 108 110
0.008000 -0.074000 0.003333 186 152 144
0.014000 -0.074000 0.007692 175 167 148
0.020000 -0.074000 0.012500 195 179 164
0.074000 -0.074000 0.003571 121 118 97
0.086000 -0.074000 0.007143 104 84 78
0.130000 -0.074000 0.007143 150 136 118
0.250000 -0.074000 0.025000 53 32 21
0.370000 -0.074000 0.016667 131 117 101
-0.168000 -0.076000 0.008333 5 13 7
0.008000 -0.076000 0.003333 153 132 122
0.014000 -0.076000 0.007692 154 143 126
0.016000 -0.076000 0.004167 203 190 172
0.020000 -0.076000 0.012500 198 180 166
0.080000 -0.076000 0.008333 95 101 74
0.174000 -0.076000 0.020000 159 72 33
0.178000 -0.076000 0.004348 152 65 29
0.200000 -0.076000 0.003704 108 47 23
0.238000 -0.076000 0.006250 137 104 84
-0.184000 -0.078000 0.012500 147 140 128
-0.180000 -0.078000 0.011111 143 136 121
-0.168000 -0.078000 0.008333 11 23 18
0.006000 -0.078000 0.003333 213 181 174
0.018000 -0.078000 0.004167 206 182 169
0.178000 -0.078000 0.016667 153 74 37
0.198000 -0.078000 0.003846 117 52 25
0.202000 -0.078000 0.003704 104 49 21
0.262000 -0.078000 0.014286 8 22 12
-0.160000 -0.080000 0.008333 11 20 17
-0.156000 -0.080000 0.007692 8 21 13
0.006000 -0.080000 0.003333 200 161 153
0.018000 -0.080000 0.004167 212 194 178
0.242000 -0.080000 0.003448 87 63 35
0.246000 -0.080000 0.003333 61 41 22
0.270000 -0.080000 0.009091 7 26 11
-0.206000 -0.082000 0.006250 101 106 88
0.000000 -0.082000 0.100000 235 236 221
0.232000 -0.082000 0.006250 51 32 19
0.270000 -0.082000 0.009091 7 27 12
0.000000 -0.084000 0.100000 227 212 193
0.006000 -0.084000 0.003448 166 145 136
0.020000 -0.084000 0.004000 217 199 183
0.130000 -0.084000 0.004167 139 128 107
0.270000 -0.084000 0.009091 6 26 11
-0.294000 -0.086000 0.008333 64 64 55
0.020000 -0.086000 0.004167 216 201 181
0.148000 -0.086000 0.005000 144 133 114
0.270000 -0.086000 0.009091 7 26 11
0.344000 -0.086000 0.009091 84 79 61
-0.314000 -0.088000 0.010000 15 24 16
-0.004000 -0.088000 0.100000 192 188 165
0.006000 -0.088000 0.003448 195 178 163
0.008000 -0.088000 0.004762 198 181 165
0.118000 -0.088000 0.005000 81 80 58
0.126000 -0.088000 0.004545 97 92 72
0.214000 -0.088000 0.006250 7 33 12
0.274000 -0.088000 0.007692 6 22 11
-0.196000 -0.090000 0.025000 75 76 67
-0.100000 -0.090000 0.012500 230 211 197
0.148000 -0.090000 0.005000 114 110 87
0.210000 -0.090000 0.006667 7 28 11
0.284000 -0.090000 0.005556 12 23 13
0.288000 -0.090000 0.005263 31 34 24
-0.332000 -0.092000 0.007692 42 47 39
-0.288000 -0.092000 0.010000 58 58 50
-0.196000 -0.092000 0.025000 63 65 55
-0.088000 -0.092000 0.005882 236 221 205
-0.068000 -0.092000 0.004545 226 210 197
0.210000 -0.092000 0.006667 8 31 12
0.214000 -0.092000 0.006250 8 32 12
0.276000 -0.092000 0.006250 7 23 13
0.284000 -0.092000 0.005556 10 24 14
0.288000 -0.092000 0.005263 33 36 24
-0.298000 -0.094000 0.008333 14 25 15
0.042000 -0.094000 0.003333 209 188 172
0.072000 -0.094000 0.100000 67 64 45
